0.249027 0.3 -0.251581 0 1 0
-0.284695 -0.3 0.271936 0 -1 0
0.112075 0.142763 0.292998 -1.63913e-06 0 1
0.221184 -0.3 -0.253112 0 -1 0
-0.3 0.164803 -0.153637 -1 0 0
0.269647 -0.3 0.23399 0 -1 0
-0.273628 -0.3 -0.281542 0 -1 0
-0.3 0.299587 0.257347 -1 0 0
-0.0275351 0.0374307 -0.307002 0 1.63913e-06 -1
-0.0165496 0.3 -0.0126636 0 1 0
0.3 0.0651651 0.0739817 1 0 0
0.3 -0.0131317 -0.262976 1 0 0
-0.0434217 -0.3 0.00614485 0 -1 0
-0.3 -0.141479 -0.0189412 -1 0 0
-0.144805 -0.0238692 0.292998 0 1.63913e-06 1
0.0186827 -0.132281 0.292998 0 1.63913e-06 1
0.298141 0.3 0.199557 0 1 0
0.3 -0.198372 0.0015606 1 0 0
-0.117171 0.3 -0.251449 0 1 0
-0.3 0.0440337 0.110791 -1 0 0
-0.29108 -0.0396019 -0.307003 0 1.63913e-06 -1
-0.00150812 -0.24394 -0.307003 1.63913e-06 0 -1
0.3 0.0774126 -0.155776 1 0 0
0.299099 -0.0613087 0.292998 -1.63913e-06 0 1
-0.204111 0.3 0.0170866 0 1 0
-0.0668406 0.3 0.26805 0 1 0
-0.0413038 -0.3 0.198532 0 -1 0
0.200366 0.149763 -0.307002 1.63913e-06 0 -1
0.195945 -0.111166 -0.307002 1.63913e-06 0 -1
-0.102849 -0.182916 -0.307003 1.63913e-06 0 -1
-0.0667117 0.3 0.223764 0 1 0
0.272831 0.3 -0.0321607 0 1 0
-0.273419 -0.3 0.046968 0 -1 0
0.0606823 0.3 -0.178824 0 1 0
0.16734 -0.3 -0.0782837 0 -1 0
-0.0571099 -0.231382 0.292998 0 1.63913e-06 1
-0.227072 0.156393 -0.307002 0 1.63913e-06 -1
-0.0887928 -0.3 -0.184831 0 -1 0
-0.0265062 -0.0282143 0.292998 0 1.63913e-06 1
-0.0111383 0.3 0.201014 0 1 0
-0.3 -0.0965289 0.249891 -1 0 0
-0.3 -0.154994 -0.206771 -1 0 0
0.1558 -0.3 0.111812 0 -1 0
-0.3 0.112704 0.289641 -1 0 0
0.0262181 0.243781 -0.307002 0 1.63913e-06 -1
0.3 -0.175368 -0.238095 1 0 0
0.297837 0.159606 0.292998 -1.63913e-06 0 1
-0.3 0.208407 0.0188827 -1 0 0
0.3 0.195573 -0.264651 1 0 0
0.3 0.223223 0.140828 1 0 0
-0.3 0.0349545 -0.0277261 -1 0 0
0.151287 0.3 0.106244 0 1 0
0.179413 -0.213897 0.292998 0 1.63913e-06 1
-0.224739 -0.3 -0.065834 0 -1 0
-0.3 0.0780587 -0.103335 -1 0 0
0.144778 -0.0352391 0.292998 -1.63913e-06 0 1
-0.3 0.29364 -0.267064 -1 0 0
-0.3 -0.175463 0.149773 -1 0 0
0.3 -0.181896 0.17634 1 0 0
-0.107385 0.142807 0.292997 -1.63913e-06 0 1
0.0919476 -0.3 0.261272 0 -1 0
0.3 -0.0839841 -0.0924929 1 0 0
-0.132559 -0.3 -0.207123 0 -1 0
0.0946244 0.290844 0.292998 -1.63913e-06 0 1
0.10673 0.3 0.0826964 0 1 0
0.135465 0.0218856 -0.307002 1.63913e-06 0 -1
-0.127863 -0.3 0.157433 0 -1 0
0.0598655 -0.3 -0.154669 0 -1 0
0.3 -0.270566 -0.155185 1 0 0
0.119803 0.3 -0.0700335 0 1 0
-0.3 -0.23859 -0.13995 -1 0 0
0.3 -0.0757347 0.0680032 1 0 0
0.0372389 -0.195568 -0.307002 1.63913e-06 0 -1
-0.200636 0.3 0.170156 0 1 0
0.231692 0.287851 0.292998 -1.63913e-06 0 1
-0.113488 0.168794 -0.307002 0 1.63913e-06 -1
-0.238448 0.3 -0.135191 0 1 0
-0.144609 -0.042416 -0.307003 0 1.63913e-06 -1
-0.203143 -0.16516 0.292998 0 1.63913e-06 1
-0.3 0.161026 0.161735 -1 0 0
-0.168772 0.260583 0.292997 -1.63913e-06 0 1
-0.101761 0.3 -0.106712 0 1 0
0.3 -0.00293976 0.21528 1 0 0
0.3 0.180103 -0.0479729 1 0 0
-0.3 -0.0201651 -0.197584 -1 0 0
-0.253107 -0.161796 -0.307003 0 1.63913e-06 -1
0.0093869 0.231921 0.292998 -1.63913e-06 0 1
-0.0317466 -0.0873125 -0.307003 1.63913e-06 0 -1
0.293341 0.0799369 -0.307002 1.63913e-06 0 -1
0.258242 -0.3 0.103844 0 -1 0
-0.3 -0.0448891 0.0756844 -1 0 0
0.0332143 0.130639 -0.307002 0 1.63913e-06 -1
0.222483 -0.238184 -0.307002 1.63913e-06 0 -1
0.3 -0.283483 -0.102705 1 0 0
-0.0924344 0.3 0.0982583 0 1 0
0.3 0.0467171 -0.0237367 1 0 0
0.3 -0.186844 0.287313 1 0 0
-0.155869 -0.266539 -0.307003 1.63913e-06 0 -1
0.00532976 0.0910092 0.292998 -1.63913e-06 0 1
0.113047 0.3 0.232942 0 1 0
-0.14548 -0.3 0.0495266 0 -1 0
0.3 0.256483 -0.151407 1 0 0
-0.3 0.0877557 -0.258796 -1 0 0
0.252403 -0.3 0.0222757 0 -1 0
-0.162154 -0.289903 0.292998 0 1.63913e-06 1
0.0715543 -0.3 0.0282273 0 -1 0
0.123321 0.3 -0.286565 0 1 0
0.163163 0.3 -0.13107 0 1 0
-0.185327 0.050972 -0.307002 0 1.63913e-06 -1
0.220296 -0.0527639 -0.307002 1.63913e-06 0 -1
0.103556 -0.3 -0.21879 0 -1 0
-0.3 0.265448 0.142097 -1 0 0
0.251372 0.3 0.0867797 0 1 0
-0.3 -0.220684 0.0525535 -1 0 0
0.3 0.122444 0.212927 1 0 0
0.243621 0.0387543 0.292998 -1.63913e-06 0 1
-0.0357773 0.3 -0.257173 0 1 0
0.0655833 -0.0786406 -0.307002 1.63913e-06 0 -1
-0.265666 -0.0439785 0.292998 0 1.63913e-06 1
0.0275033 -0.3 0.105611 0 -1 0
-0.298523 0.3 -0.0165974 0 1 0
-0.3 0.20198 -0.267952 -1 0 0
-0.202766 0.169093 0.292997 0 1.63913e-06 1
-0.0319479 -0.3 -0.0851154 0 -1 0
0.132618 0.0772952 0.292998 -1.63913e-06 0 1
-0.3 -0.284837 0.17461 -1 0 0
-0.199086 0.274086 -0.307002 0 1.63913e-06 -1
0.183564 -0.3 0.171873 0 -1 0
0.000497699 0.3 -0.0682029 0 1 0
-0.3 -0.0174443 0.168151 -1 0 0
0.3 -0.16743 -0.160847 1 0 0
-0.242655 -0.3 -0.176374 0 -1 0
-0.3 -0.190691 0.279531 -1 0 0
-0.0995168 -0.121587 0.292998 0 1.63913e-06 1
-0.3 0.215534 0.266781 -1 0 0
0.0726139 -0.3 -0.0489559 0 -1 0
0.0270223 -0.236068 0.292998 0 1.63913e-06 1
0.0803833 -0.295862 -0.307002 1.63913e-06 0 -1
-0.234224 -0.3 0.151341 0 -1 0
-0.116495 -0.288316 -0.307003 1.63913e-06 0 -1
0.0943605 0.163197 -0.307002 0 1.63913e-06 -1
0.3 0.274509 -0.282539 1 0 0
-0.231195 0.0476408 0.292997 0 1.63913e-06 1
-0.118287 0.3 -0.00623465 0 1 0
0.3 0.129149 0.11767 1 0 0
-0.3 -0.166817 -0.153836 -1 0 0
0.3 -0.046007 -0.164589 1 0 0
-0.3 0.047865 0.214481 -1 0 0
-0.3 0.195471 -0.0757397 -1 0 0
0.188784 -0.299191 0.292998 0 1.63913e-06 1
0.189564 0.104399 -0.307002 1.63913e-06 0 -1
-0.0854799 0.0404665 0.292997 0 1.63913e-06 1
0.111139 -0.135983 0.292998 0 1.63913e-06 1
0.3 -0.0854751 0.155311 1 0 0
-0.0424942 -0.3 0.255382 0 -1 0
0.3 -0.258174 0.0469998 1 0 0
-0.000193954 -0.3 -0.253644 0 -1 0
-0.0741115 -0.3 0.129574 0 -1 0
-0.0840547 0.257712 -0.307002 0 1.63913e-06 -1
0.3 -0.263684 0.15342 1 0 0
0.197266 0.253057 -0.307002 0 1.63913e-06 -1
0.112106 -0.173954 -0.307002 1.63913e-06 0 -1
-0.129501 -0.3 -0.0876469 0 -1 0
0.3 -0.251474 -0.286871 1 0 0
0.3 0.22734 0.0335299 1 0 0
-0.3 0.106984 0.0586035 -1 0 0
0.153798 -0.297386 -0.307002 1.63913e-06 0 -1
0.15452 0.3 -0.218963 0 1 0
-0.3 0.260476 -0.156586 -1 0 0
-0.3 -0.24803 -0.0350358 -1 0 0
0.0407678 -0.0186857 -0.307002 1.63913e-06 0 -1
0.252577 0.3 -0.156554 0 1 0
0.3 0.142607 -0.227095 1 0 0
-0.3 -0.04803 -0.0605002 -1 0 0
-0.183945 0.227542 -0.307002 0 1.63913e-06 -1
0.1655 0.210147 0.292998 -1.63913e-06 0 1
0.0245424 0.3 -0.215806 0 1 0
-0.23028 0.3 -0.211897 0 1 0
-0.228537 -0.212708 -0.307003 0 1.63913e-06 -1
0.211962 0.114259 0.292998 -1.63913e-06 0 1
0.260351 -0.119618 -0.307002 1.63913e-06 0 -1
0.0114455 -0.0709429 0.292998 0 1.63913e-06 1
-0.3 -0.0339675 -0.11534 -1 0 0
0.3 0.250333 0.240513 1 0 0
-0.3 -0.0954962 -0.288745 -1 0 0
0.19747 0.3 -0.00377494 0 1 0
-0.3 -0.0192675 0.025834 -1 0 0
-0.3 -0.197242 -0.212418 -1 0 0
0.3 -0.014853 -0.0452254 1 0 0
0.130435 0.3 0.0116552 0 1 0
-0.0351825 0.123743 -0.307002 0 1.63913e-06 -1
0.0294705 0.0275877 0.292998 -1.63913e-06 0 1
0.175968 -0.3 0.0323314 0 -1 0
0.0677406 0.3 0.2329 0 1 0
-0.3 0.128377 -0.00345755 -1 0 0
-0.20409 -0.3 -0.0144407 0 -1 0
-0.00438753 0.3 0.0991841 0 1 0
-0.267934 0.3 0.0735347 0 1 0
-0.250485 -0.274091 0.292998 0 1.63913e-06 1
0.3 0.0535771 0.167815 1 0 0
0.142822 -0.3 -0.133139 0 -1 0
-0.263299 0.0739686 -0.307002 0 1.63913e-06 -1
0.3 -0.138721 0.0251622 1 0 0
-0.145814 0.3 -0.184074 0 1 0
-0.3 -0.249282 -0.268605 -1 0 0
0.199607 -0.125639 0.292998 -1.63913e-06 0 1
0.253126 -0.252966 0.292998 -1.63913e-06 0 1
-0.0916034 -0.3 -0.00651646 0 -1 0
-0.0735894 0.211498 0.292997 -1.63913e-06 0 1
0.3 -0.293956 -0.239322 1 0 0
0.3 0.00135133 0.0545976 1 0 0
-0.230437 0.3 0.227697 0 1 0
-0.273408 0.240284 -0.307002 0 1.63913e-06 -1
-0.027428 -0.187847 -0.307003 1.63913e-06 0 -1
-0.3 0.216363 0.0909794 -1 0 0
0.3 0.167487 -0.144598 1 0 0
0.0836961 -0.3 0.17647 0 -1 0
0.3 0.150012 0.035124 1 0 0
-0.136201 0.3 0.149779 0 1 0
-0.191343 -0.3 0.21506 0 -1 0
-0.187105 -0.0965894 0.292998 0 1.63913e-06 1
-0.216016 0.3 -0.0619503 0 1 0
-0.3 -0.101043 0.160358 -1 0 0
-0.159905 -0.3 -0.129186 0 -1 0
-0.3 0.147516 -0.303256 -1 0 0
-0.262813 0.3 0.192101 0 1 0
0.232061 -0.3 -0.156132 0 -1 0
-0.130515 0.3 0.256321 0 1 0
0.185132 0.3 0.204894 0 1 0
0.3 0.0350303 -0.202937 1 0 0
-0.195775 -0.102633 -0.307003 0 1.63913e-06 -1
0.0284905 0.3 0.0571259 0 1 0
-0.121631 -0.099394 -0.307003 0 1.63913e-06 -1
0.272189 0.0755393 0.292998 -1.63913e-06 0 1
-0.0584183 0.3 -0.174821 0 1 0
0.256656 -0.108358 0.292998 -1.63913e-06 0 1
-0.3 -0.165204 0.230517 -1 0 0
0.195786 0.3 -0.0539515 0 1 0
-0.165439 -0.3 -0.249436 0 -1 0
0.3 -0.163509 -0.0712525 1 0 0
0.3 -0.0900908 -0.243345 1 0 0
0.284027 0.3 0.0383449 0 1 0
0.3 0.255457 -0.0753175 1 0 0
-0.070234 -0.3 -0.257264 0 -1 0
0.107598 0.3 0.163649 0 1 0
-0.0262326 -0.3 -0.144494 0 -1 0
0.3 -0.0872249 0.252162 1 0 0
-0.3 -0.133442 0.0585157 -1 0 0
-0.3 0.266353 -0.070869 -1 0 0
0.122177 0.0803103 -0.307002 1.63913e-06 0 -1
0.0396276 0.29992 -0.307002 0 1.63913e-06 -1
-0.150653 -0.212322 0.292998 0 1.63913e-06 1
0.226252 -0.0329733 0.292998 -1.63913e-06 0 1
0.3 -0.197375 0.100174 1 0 0
-0.291588 -0.3 -0.116693 0 -1 0
0.286058 -0.175432 -0.307002 1.63913e-06 0 -1
-0.113703 -0.3 0.223493 0 -1 0
-0.0583339 -0.0273035 -0.307003 0 1.63913e-06 -1
-0.3 0.249679 0.186637 -1 0 0
0.236319 0.0335844 -0.307002 1.63913e-06 0 -1
0.3 0.148345 0.179263 1 0 0
0.3 0.0957277 -0.0757159 1 0 0
-0.0393183 -0.18301 0.292998 0 1.63913e-06 1
0.296578 0.3 -0.19228 0 1 0
0.0698675 -0.0346173 0.292998 -1.63913e-06 0 1
0.3 -0.148033 0.220367 1 0 0
-0.3 0.0631914 -0.200962 -1 0 0
0.243359 0.3 0.161652 0 1 0
-0.297658 -0.3 -0.0439717 0 -1 0
0.13034 0.23062 -0.307002 0 1.63913e-06 -1
0.259617 0.184 -0.307002 1.63913e-06 0 -1
0.0454867 0.0556777 -0.307002 0 1.63913e-06 -1
0.23681 -0.3 -0.0742998 0 -1 0
-0.3 -0.247886 0.229911 -1 0 0
-0.156302 0.3 0.0751087 0 1 0
0.00486037 0.3 0.291387 0 1 0
-0.216439 -0.0175859 -0.307003 0 1.63913e-06 -1
0.257708 -0.210317 0.292998 -1.63913e-06 0 1
-0.0401772 -0.3 0.076914 0 -1 0
-0.3 -0.0879101 -0.167332 -1 0 0
0.3 0.0119428 0.122612 1 0 0
-0.099648 0.0552253 -0.307002 0 1.63913e-06 -1
0.3 -0.253565 -0.0398029 1 0 0
0.3 0.0140835 -0.112197 1 0 0
-0.3 -0.271494 0.101552 -1 0 0
-0.169892 0.147737 -0.307002 0 1.63913e-06 -1
-0.25581 0.250054 0.292997 0 1.63913e-06 1
0.0343724 0.158892 0.292998 -1.63913e-06 0 1
0.120189 -0.126807 -0.307002 1.63913e-06 0 -1
-0.3 -0.287454 -0.200611 -1 0 0
-0.0838773 0.3 0.0324213 0 1 0
-0.161308 0.0695648 0.292997 0 1.63913e-06 1
-0.3 0.12854 0.221791 -1 0 0
0.121694 -0.3 -0.00669652 0 -1 0
-0.131176 0.00192434 -0.307002 0 1.63913e-06 -1
0.3 -0.204946 -0.20124 1 0 0
-0.25077 -0.12471 0.292998 0 1.63913e-06 1
0.237428 0.206779 0.292998 -1.63913e-06 0 1
-0.084229 -0.29861 0.292998 0 1.63913e-06 1
0.3 0.199092 -0.19518 1 0 0
0.198426 -0.3 -0.189128 0 -1 0
-0.249568 -0.192078 0.292998 0 1.63913e-06 1
-0.0548081 0.3 -0.0380076 0 1 0
0.0926868 -0.21016 0.292998 0 1.63913e-06 1
-0.02142 0.193175 -0.307002 0 1.63913e-06 -1
-0.298487 -0.221628 -0.307003 0 1.63913e-06 -1
0.00825262 0.3 -0.133032 0 1 0
0.156632 0.3 0.268027 0 1 0
-0.3 -0.111472 -0.0891921 -1 0 0
0.3 -0.125092 0.100421 1 0 0
0.0224844 -0.0651302 -0.307002 1.63913e-06 0 -1
0.3 0.0530628 0.257263 1 0 0
-0.3 -0.0189062 0.234934 -1 0 0
0.3 -0.0775942 -0.00111622 1 0 0
-0.261495 0.186018 0.292997 0 1.63913e-06 1
0.249033 0.3 -0.108675 0 1 0
-0.3 0.0300988 -0.146158 -1 0 0
-0.164962 -0.152775 -0.307003 0 1.63913e-06 -1
0.193859 0.3 -0.274665 0 1 0
-0.117746 0.100956 -0.307002 0 1.63913e-06 -1
0.150497 -0.068774 -0.307002 1.63913e-06 0 -1
-0.191561 -0.3 0.0530305 0 -1 0
0.0273418 -0.3 0.265289 0 -1 0
0.0193474 -0.3 -0.020216 0 -1 0
0.254976 -0.275292 -0.307002 1.63913e-06 0 -1
0.213922 -0.3 0.111292 0 -1 0
-0.3 -0.199833 -0.0367644 -1 0 0
0.051859 0.177479 -0.307002 0 1.63913e-06 -1
-0.044837 0.3 0.145235 0 1 0
0.10027 0.21954 0.292998 -1.63913e-06 0 1
0.115986 -0.3 0.0517018 0 -1 0
-0.224165 0.297984 0.292997 -1.63913e-06 0 1
-0.213737 0.3 0.0724383 0 1 0
-0.177532 0.116713 0.292997 0 1.63913e-06 1
0.3 -0.0520049 -0.30669 1 0 0
-0.3 0.0405332 0.274632 -1 0 0
0.191364 -0.176157 -0.307002 1.63913e-06 0 -1
-0.223921 -0.2803 -0.307003 1.63913e-06 0 -1
-0.156193 0.3 -0.0735203 0 1 0
-0.3 0.165459 -0.219053 -1 0 0
0.281221 0.3 0.253594 0 1 0
0.109732 0.3 -0.164496 0 1 0
0.3 0.274991 0.0928085 1 0 0
0.19263 0.3 0.0863172 0 1 0
0.152725 -0.233067 -0.307002 1.63913e-06 0 -1
0.128098 -0.3 0.208316 0 -1 0
0.00957179 -0.13866 -0.307002 1.63913e-06 0 -1
-0.191097 -0.3 0.115562 0 -1 0
-0.206665 -0.0137933 0.292998 0 1.63913e-06 1
0.248778 0.127476 -0.307002 1.63913e-06 0 -1
0.0687542 0.3 -0.107024 0 1 0
0.0335085 -0.3 0.195734 0 -1 0
0.171968 0.197537 -0.307002 0 1.63913e-06 -1
0.3 0.189834 0.226049 1 0 0
-0.249287 0.3 -0.0187976 0 1 0
-0.3 -0.0692696 -0.229968 -1 0 0
0.038907 -0.3 -0.202574 0 -1 0
-0.249132 -0.0870464 -0.307003 0 1.63913e-06 -1
0.3 -0.21564 -0.124816 1 0 0
-0.0376763 -0.3 -0.303942 0 -1 0
-0.0256915 0.278122 -0.307002 0 1.63913e-06 -1
0.3 0.129681 -0.0120817 1 0 0
0.257188 -0.157985 0.292998 -1.63913e-06 0 1
-0.0662419 -0.236142 -0.307003 1.63913e-06 0 -1
-0.0389258 -0.118579 0.292998 0 1.63913e-06 1
0.0844814 -0.235749 -0.307002 1.63913e-06 0 -1
0.132932 -0.3 -0.266176 0 -1 0
0.255413 -0.298007 0.292998 0 1.63913e-06 1
-0.0171763 0.0448286 0.292997 -1.63913e-06 0 1
0.0843512 -0.3 0.095249 0 -1 0
-0.136398 0.193464 0.292997 -1.63913e-06 0 1
0.0532448 0.3 0.118844 0 1 0
-0.250176 -0.3 0.221449 0 -1 0
0.246096 0.285996 -0.307002 0 1.63913e-06 -1
0.3 0.297695 -0.0996094 1 0 0
-0.0387599 -0.3 -0.206656 0 -1 0
0.0744489 0.0947171 0.292998 -1.63913e-06 0 1
0.0791759 0.3 -0.241426 0 1 0
0.230154 0.3 0.237078 0 1 0
0.267499 0.243352 0.292998 -1.63913e-06 0 1
-0.211518 -0.3 -0.21174 0 -1 0
-0.250512 0.3 0.131651 0 1 0
-0.3 -0.0147482 0.26884 -1 0 0
-0.241181 0.122157 0.292997 0 1.63913e-06 1
-0.3 0.154133 0.09204 -1 0 0
-0.3 -0.149987 -0.287994 -1 0 0
0.0296395 -0.3 -0.0915161 0 -1 0
0.223764 -0.3 -0.0087561 0 -1 0
-0.3 0.143311 -0.0573322 -1 0 0
0.3 -0.131463 -0.128837 1 0 0
0.000374049 -0.3 0.13904 0 -1 0
0.3 0.0688361 -0.252654 1 0 0
-0.3 -0.273553 0.024022 -1 0 0
-0.3 -0.226276 0.165524 -1 0 0
0.3 0.103222 0.266561 1 0 0
-0.3 -0.111085 0.0903321 -1 0 0
-0.0381925 0.3 0.0531935 0 1 0
-0.244912 -0.3 0.0890957 0 -1 0
-0.3 0.0193472 -0.237498 -1 0 0
-0.213334 0.3 -0.264439 0 1 0
0.242354 -0.17608 -0.307002 1.63913e-06 0 -1
0.146073 -0.0939798 0.292998 -1.63913e-06 0 1
-0.0406595 0.118886 0.292997 -1.63913e-06 0 1
-0.3 0.10324 0.169613 -1 0 0
0.215157 -0.3 0.237914 0 -1 0
-0.3 0.202187 0.159512 -1 0 0
-0.109701 -0.242246 -0.307003 1.63913e-06 0 -1
-0.3 -0.197841 -0.0979061 -1 0 0
0.275101 0.234771 -0.307002 1.63913e-06 0 -1
0.3 0.14752 -0.292309 1 0 0
0.235447 0.3 -0.212177 0 1 0
-0.149845 0.3 -0.295541 0 1 0
-0.3 0.258479 -0.23234 -1 0 0
-0.201256 -0.3 0.268218 0 -1 0
-0.3 -0.0963075 0.0228007 -1 0 0
-0.3 0.113297 -0.179236 -1 0 0
0.3 0.221633 -0.12069 1 0 0
-0.3 0.264709 0.0281377 -1 0 0
0.208269 0.168999 0.292998 -1.63913e-06 0 1
0.3 -0.244304 0.0998716 1 0 0
0.0276715 -0.280028 -0.307002 1.63913e-06 0 -1
-0.3 0.261413 0.0873651 -1 0 0
-0.3 0.186664 0.217797 -1 0 0
0.0965753 -0.030998 -0.307002 1.63913e-06 0 -1
0.0784409 0.0249307 0.292998 -1.63913e-06 0 1
0.283599 0.00304452 -0.307002 1.63913e-06 0 -1
0.3 -0.117133 -0.187104 1 0 0
-0.00572586 -0.0120236 -0.307003 1.63913e-06 0 -1
0.0155229 -0.190295 0.292998 0 1.63913e-06 1
0.0434708 0.3 0.00810277 0 1 0
-0.202552 0.216676 0.292997 -1.63913e-06 0 1
0.267642 -0.3 0.16592 0 -1 0
0.3 -0.127362 -0.0384833 1 0 0
0.193401 0.0564913 0.292998 -1.63913e-06 0 1
0.0173512 -0.3 0.0415486 0 -1 0
0.123378 -0.3 -0.0575677 0 -1 0
-0.3 0.0421925 -0.279685 -1 0 0
0.201415 0.241364 0.292998 -1.63913e-06 0 1
-0.162511 0.0286899 0.292997 0 1.63913e-06 1
0.181264 0.00666708 0.292998 -1.63913e-06 0 1
0.3 -0.0303652 0.16116 1 0 0
0.3 -0.28713 0.260231 1 0 0
0.0859219 0.3 -0.0198361 0 1 0
0.151663 -0.16238 0.292998 0 1.63913e-06 1
-0.280197 0.3 -0.175806 0 1 0
-0.240737 0.205221 -0.307002 0 1.63913e-06 -1
-0.10288 0.272345 0.292997 -1.63913e-06 0 1
-0.3 -0.08556 -0.12732 -1 0 0
-0.3 -0.0826489 0.202986 -1 0 0
-0.0703465 -0.0349113 0.292998 0 1.63913e-06 1
-0.0394018 0.3 -0.105562 0 1 0
-0.118604 0.240318 0.292997 -1.63913e-06 0 1
-0.17634 0.095305 -0.307002 0 1.63913e-06 -1
0.3 -0.296418 -0.297273 1 0 0
-0.298898 -0.241665 0.292998 0 1.63913e-06 1
0.147517 0.140826 -0.307002 1.63913e-06 0 -1
-0.0604603 0.161373 0.292997 -1.63913e-06 0 1
-0.259281 0.3 -0.0837039 0 1 0
-0.254223 0.020245 -0.307002 0 1.63913e-06 -1
0.258446 -0.3 -0.218572 0 -1 0
0.3 -0.220868 0.211699 1 0 0
-0.182801 -0.3 0.164234 0 -1 0
-0.134017 0.225395 -0.307002 0 1.63913e-06 -1
0.3 -0.0283401 0.0957124 1 0 0
0.3 -0.0381919 0.24648 1 0 0
-0.255704 -0.3 -0.00813895 0 -1 0
0.291102 0.3 0.134743 0 1 0
-0.0347554 0.258684 0.292997 -1.63913e-06 0 1
-0.3 -0.203984 -0.266622 -1 0 0
-0.3 -0.00481442 -0.274946 -1 0 0
-0.145746 -0.3 0.0995716 0 -1 0
-0.205919 0.3 -0.17089 0 1 0
-0.0975222 -0.3 0.0675899 0 -1 0
-0.3 0.0966555 0.254619 -1 0 0
0.3 -0.00492716 0.00402749 1 0 0
-0.3 0.0935074 -0.0473027 -1 0 0
0.3 0.0157086 0.291585 1 0 0
0.3 0.170314 0.0880072 1 0 0
0.0772934 0.102788 -0.307002 0 1.63913e-06 -1
-0.171642 -0.0508271 0.292998 0 1.63913e-06 1
-0.167075 0.3 -0.230296 0 1 0
0.3 0.138171 -0.0788608 1 0 0
-0.3 -0.299537 0.129866 -1 0 0
0.11989 -0.3 0.144336 0 -1 0
-0.3 0.234078 -0.0380026 -1 0 0
0.3 -0.0677641 0.200523 1 0 0
-0.0866476 -0.135243 -0.307003 1.63913e-06 0 -1
-0.182257 -0.123578 0.292998 0 1.63913e-06 1
0.3 0.0838322 0.11933 1 0 0
-0.185869 0.3 0.218506 0 1 0
-0.3 0.144167 -0.108194 -1 0 0
-0.179138 -0.3 -0.0821223 0 -1 0
0.17687 0.0585783 -0.307002 1.63913e-06 0 -1
0.0497558 0.270212 0.292998 -1.63913e-06 0 1
0.200948 -0.3 -0.117516 0 -1 0
-0.0932386 0.3 -0.210793 0 1 0
-0.203276 -0.21027 0.292998 0 1.63913e-06 1
-0.147063 -0.164889 0.292998 0 1.63913e-06 1
0.276157 -0.3 -0.0172754 0 -1 0
-0.129431 0.3 0.198832 0 1 0
-0.0978556 -0.254903 0.292998 0 1.63913e-06 1
0.0720099 0.241819 -0.307002 0 1.63913e-06 -1
0.3 0.237391 0.193825 1 0 0
0.214526 0.3 0.0424386 0 1 0
0.0604334 -0.3 -0.244513 0 -1 0
-0.0149292 0.189444 0.292997 -1.63913e-06 0 1
-0.3 -0.174242 0.0316446 -1 0 0
-0.176396 0.3 -0.0292305 0 1 0
0.3 -0.132508 0.270046 1 0 0
0.3 0.282265 -0.236635 1 0 0
-0.3 -0.126776 0.287348 -1 0 0
0.155531 -0.265219 0.292998 0 1.63913e-06 1
0.140502 -0.3 0.265539 0 -1 0
0.166917 0.114098 0.292998 -1.63913e-06 0 1
0.3 0.185463 -0.0937604 1 0 0
0.3 0.267636 -0.0283951 1 0 0
-0.140066 -0.0952325 0.292998 0 1.63913e-06 1
-0.188734 0.3 0.113861 0 1 0
0.15314 -0.3 -0.201589 0 -1 0
0.247148 0.149744 0.292998 -1.63913e-06 0 1
0.171283 -0.3 0.21549 0 -1 0
0.00934571 0.3 0.157364 0 1 0
0.109327 -0.3 -0.167679 0 -1 0
0.3 0.0792532 0.0117128 1 0 0
-0.078465 -0.3 -0.0974284 0 -1 0
0.161409 0.163728 0.292998 -1.63913e-06 0 1
0.291152 -0.3 -0.0604138 0 -1 0
0.204823 0.3 0.143093 0 1 0
-0.246458 0.281208 -0.307002 0 1.63913e-06 -1
-0.3 -0.227267 0.104295 -1 0 0
-0.3 0.241421 -0.110827 -1 0 0
-0.3 -0.296717 -0.257414 -1 0 0
-0.0938764 -0.0512033 -0.307003 0 1.63913e-06 -1
-0.235144 -0.0802916 0.292998 0 1.63913e-06 1
0.222477 0.21264 -0.307002 1.63913e-06 0 -1
0.0620203 -0.126063 -0.307002 1.63913e-06 0 -1
0.3 -0.216719 0.145065 1 0 0
0.3 -0.247567 -0.237806 1 0 0
-0.080604 0.13558 -0.307002 0 1.63913e-06 -1
-0.246012 -0.3 -0.107515 0 -1 0
-0.3 -0.0793031 0.287652 -1 0 0
0.3 -0.204929 0.0546685 1 0 0
0.162861 0.292928 -0.307002 0 1.63913e-06 -1
0.155217 0.247346 0.292998 -1.63913e-06 0 1
0.230473 -0.3 0.0604317 0 -1 0
-0.105694 -0.075451 0.292998 0 1.63913e-06 1
-0.113796 -0.202514 0.292998 0 1.63913e-06 1
-0.197477 -0.3 -0.282989 0 -1 0
-0.3 -0.156885 0.107798 -1 0 0
-0.254268 0.3 -0.278219 0 1 0
-0.264526 -0.248814 -0.307003 0 1.63913e-06 -1
0.3 -0.209983 -0.0521439 1 0 0
0.3 -0.0522417 -0.217155 1 0 0
-0.0640895 0.3 -0.302336 0 1 0
-0.3 -0.246169 -0.0958542 -1 0 0
-0.159037 -0.3 -0.00535938 0 -1 0
0.3 -0.0885547 -0.147287 1 0 0
0.3 0.0547653 0.211452 1 0 0
-0.3 0.0525073 0.169064 -1 0 0
-0.147828 -0.3 -0.0461607 0 -1 0
0.277944 -0.224452 -0.307002 1.63913e-06 0 -1
0.213124 -0.183431 0.292998 -1.63913e-06 0 1
-0.0797643 -0.162015 0.292998 0 1.63913e-06 1
-0.0141937 0.0774477 -0.307002 0 1.63913e-06 -1
0.3 -0.0468925 -0.119381 1 0 0
-0.3 0.16585 0.255565 -1 0 0
-0.0912201 0.3 0.145615 0 1 0
-0.3 -0.139419 0.18354 -1 0 0
0.146956 0.3 0.0514761 0 1 0
-0.3 0.0228364 0.0413153 -1 0 0
-0.26079 -0.3 -0.217097 0 -1 0
0.3 0.268713 0.282531 1 0 0
0.0866983 0.0102242 -0.307002 1.63913e-06 0 -1
0.178643 -0.0342041 -0.307002 1.63913e-06 0 -1
-0.3 -0.0548356 -0.000271589 -1 0 0
0.154216 -0.159443 -0.307002 1.63913e-06 0 -1
-0.0597937 0.20585 -0.307002 0 1.63913e-06 -1
0.3 0.104418 0.172479 1 0 0
0.0820115 0.285044 -0.307002 0 1.63913e-06 -1
0.3 -0.00182229 -0.163483 1 0 0
-0.0489575 0.074245 0.292997 -1.63913e-06 0 1
0.0616495 -0.3 0.133584 0 -1 0
0.160949 0.3 0.168964 0 1 0
0.3 0.200433 -0.0090296 1 0 0
-0.114556 0.3 -0.0498444 0 1 0
-0.3 0.019528 -0.103688 -1 0 0
0.29439 -0.240749 0.292998 -1.63913e-06 0 1
-0.0429156 -0.27783 0.292998 0 1.63913e-06 1
-0.297055 0.3 0.107459 0 1 0
-0.0524908 -0.3 -0.0362229 0 -1 0
-0.3 0.128533 -0.24401 -1 0 0
-0.202317 0.3 -0.112137 0 1 0
-0.3 0.188082 0.0581059 -1 0 0
0.262709 -0.0738642 -0.307002 1.63913e-06 0 -1
-0.3 0.000214934 -0.0533471 -1 0 0
-0.238201 -0.3 -0.260875 0 -1 0
0.3 -0.135453 0.14212 1 0 0
-0.3 -0.0799849 0.122866 -1 0 0
-0.20615 -0.165038 -0.307003 0 1.63913e-06 -1
-0.280944 0.298743 -0.307002 0 1.63913e-06 -1
-0.112488 0.0738577 0.292997 0 1.63913e-06 1
0.3 0.11458 0.0592641 1 0 0
0.058939 -0.183795 0.292998 0 1.63913e-06 1
-0.134942 0.3 0.103394 0 1 0
0.3 0.108956 -0.273915 1 0 0
0.256678 -0.00187218 0.292998 -1.63913e-06 0 1
-0.096812 0.3 -0.156311 0 1 0
-0.160108 -0.224822 -0.307003 1.63913e-06 0 -1
0.197647 -0.083137 0.292998 -1.63913e-06 0 1
-0.283529 0.198572 -0.307002 0 1.63913e-06 -1
-0.3 0.246226 -0.273035 -1 0 0
-0.3 -0.0137711 -0.152732 -1 0 0
-0.158053 0.188537 -0.307002 0 1.63913e-06 -1
-0.3 -0.1085 -0.246081 -1 0 0
0.071236 0.188679 0.292998 -1.63913e-06 0 1
0.298521 -0.3 -0.18561 0 -1 0
0.3 -0.146327 -0.279612 1 0 0
-0.3 0.207509 -0.223528 -1 0 0
-0.142031 -0.252413 0.292998 0 1.63913e-06 1
-0.201575 0.0792014 0.292997 0 1.63913e-06 1
0.142906 0.3 0.203119 0 1 0
-0.0566821 -0.0746487 0.292998 0 1.63913e-06 1
0.26137 0.116066 0.292998 -1.63913e-06 0 1
-0.3 -0.0212295 0.126516 -1 0 0
-0.0312265 0.235599 -0.307002 0 1.63913e-06 -1
-0.172261 -0.3 -0.194289 0 -1 0
0.211476 0.3 -0.149391 0 1 0
0.141307 0.036563 0.292998 -1.63913e-06 0 1
-0.057989 0.0584592 -0.307002 0 1.63913e-06 -1
-0.254341 0.3 0.261832 0 1 0
-0.122765 0.3 0.0441418 0 1 0
-0.0387594 -0.3 0.151475 0 -1 0
0.3 0.189834 0.176502 1 0 0
-0.0838593 -0.3 -0.143572 0 -1 0
-0.142004 0.3 -0.112557 0 1 0
0.219434 0.0755849 -0.307002 1.63913e-06 0 -1
-0.141047 0.0567413 -0.307002 0 1.63913e-06 -1
-0.120747 -0.3 0.273536 0 -1 0
0.3 0.273009 0.168244 1 0 0
0.3 0.0151471 -0.0737052 1 0 0
0.194106 0.3 -0.207273 0 1 0
0.106684 0.127263 -0.307002 0 1.63913e-06 -1
0.271678 -0.3 -0.145117 0 -1 0
0.0327795 -0.0169258 0.292998 -1.63913e-06 0 1
-0.0688068 0.099718 -0.307002 0 1.63913e-06 -1
-0.144744 -0.3 0.196642 0 -1 0
0.3 0.129139 -0.159141 1 0 0
0.3 -0.1951 -0.269462 1 0 0
-0.3 0.0795881 -0.156437 -1 0 0
0.120465 -0.257849 -0.307002 1.63913e-06 0 -1
-0.286869 0.0743314 0.292997 0 1.63913e-06 1
0.3 0.24342 -0.189875 1 0 0
-0.3 -0.0962995 -0.0515402 -1 0 0
0.3 -0.167785 0.0724271 1 0 0
-0.216287 -0.3 -0.145674 0 -1 0
0.0725663 0.3 -0.0667752 0 1 0
-0.3 0.28548 0.198404 -1 0 0
-0.0528829 0.00231621 0.292997 0 1.63913e-06 1
0.203908 -0.3 -0.0511302 0 -1 0
-0.230444 0.249031 -0.307002 0 1.63913e-06 -1
-0.157943 -0.0823933 -0.307003 0 1.63913e-06 -1
-0.252544 0.125498 -0.307002 0 1.63913e-06 -1
0.0571416 -0.26249 0.292998 0 1.63913e-06 1
0.214205 -0.244718 0.292998 0 1.63913e-06 1
-0.137731 -0.3 -0.167394 0 -1 0
-0.296618 0.152233 0.292997 0 1.63913e-06 1
0.180066 -0.3 0.0721084 0 -1 0
-0.0518495 -0.154641 -0.307003 1.63913e-06 0 -1
0.107096 -0.00270468 0.292998 -1.63913e-06 0 1
-0.276589 -0.162882 0.292998 0 1.63913e-06 1
0.3 0.19924 0.290361 1 0 0
-0.156498 -0.3 0.25495 0 -1 0
0.194871 0.3 0.278918 0 1 0
0.033514 0.3 -0.0462453 0 1 0
0.103776 -0.0691584 -0.307002 1.63913e-06 0 -1
0.0651833 -0.165567 -0.307002 1.63913e-06 0 -1
-0.284301 0.3 0.0363309 0 1 0
-0.3 -0.125099 -0.153983 -1 0 0
-0.259484 -0.235683 0.292998 0 1.63913e-06 1
-0.3 0.117157 0.105708 -1 0 0
-0.3 -0.21014 0.241281 -1 0 0
0.3 0.239393 0.0759778 1 0 0
0.00933927 -0.3 -0.127816 0 -1 0
-0.224008 -0.130121 -0.307003 0 1.63913e-06 -1
-0.0272871 0.3 -0.218887 0 1 0
0.0903392 0.200183 -0.307002 0 1.63913e-06 -1
0.3 -0.238893 -0.0760787 1 0 0
0.170638 0.004803 -0.307002 1.63913e-06 0 -1
0.3 0.021246 -0.244452 1 0 0
0.3 0.1046 -0.113683 1 0 0
-0.3 -0.224936 -0.185177 -1 0 0
0.3 0.210932 -0.157981 1 0 0
0.019819 -0.274031 0.292998 0 1.63913e-06 1
0.00922796 0.0353013 -0.307002 0 1.63913e-06 -1
-0.276399 0.3 -0.237254 0 1 0
-0.0894358 0.018088 -0.307002 0 1.63913e-06 -1
-0.185982 0.3 0.289081 0 1 0
-0.3 0.223731 -0.167794 -1 0 0
-0.0796837 -0.3 0.199976 0 -1 0
0.00702673 0.3 0.0201748 0 1 0
0.3 -0.0504778 0.0260169 1 0 0
-0.285926 0.104908 -0.307002 0 1.63913e-06 -1
0.0814396 -0.111764 0.292998 0 1.63913e-06 1
0.3 0.0314005 0.0309393 1 0 0
-0.3 -0.276043 -0.14716 -1 0 0
0.191082 -0.216536 -0.307002 1.63913e-06 0 -1
-0.00135905 0.3 -0.273599 0 1 0
0.169776 -0.3 -0.256552 0 -1 0
-0.0803531 0.3 -0.0095008 0 1 0
0.261291 -0.06475 0.292998 -1.63913e-06 0 1
0.3 0.218682 -0.0660378 1 0 0
0.0150314 -0.3 -0.173136 0 -1 0
-0.3 -0.280336 -0.0795022 -1 0 0
-0.065223 -0.3 0.037121 0 -1 0
-0.0685674 -0.280158 -0.307003 1.63913e-06 0 -1
-0.231133 -0.3 0.193796 0 -1 0
0.3 0.1054 -0.233458 1 0 0
-0.101427 -0.3 -0.228348 0 -1 0
0.253568 0.3 0.00022155 0 1 0
-0.216863 0.261024 0.292997 -1.63913e-06 0 1
0.296522 -0.3 0.207682 0 -1 0
-0.229621 0.0486878 -0.307002 0 1.63913e-06 -1
-0.0707588 0.3 -0.0848103 0 1 0
0.221133 -0.3 0.172929 0 -1 0
-0.131517 0.114022 0.292997 0 1.63913e-06 1
0.0411445 0.0933697 -0.307002 0 1.63913e-06 -1
0.103937 -0.3 -0.0896176 0 -1 0
0.3 -0.290824 0.0654095 1 0 0
0.04412 0.3 0.203858 0 1 0
-0.176848 -0.0235099 -0.307003 0 1.63913e-06 -1
0.3 0.294281 0.00510049 1 0 0
0.010959 0.127889 0.292998 -1.63913e-06 0 1
0.3 -0.259728 -0.0030345 1 0 0
-0.3 -0.225379 -0.064626 -1 0 0
-0.0635906 0.3 0.177413 0 1 0
0.158673 -0.3 -0.00263524 0 -1 0
-0.3 0.0752341 0.131044 -1 0 0
0.3 -0.24965 0.188167 1 0 0
0.271311 0.046068 -0.307002 1.63913e-06 0 -1
-0.0757957 -0.199271 0.292998 0 1.63913e-06 1
0.222077 -0.3 -0.290247 0 -1 0
-0.3 0.0121191 0.142853 -1 0 0
-0.3 -0.05491 0.178381 -1 0 0
-0.201641 0.128817 -0.307002 0 1.63913e-06 -1
0.3 -0.0289173 -0.0793657 1 0 0
0.0521051 -0.3 -0.283779 0 -1 0
0.0546599 -0.139992 0.292998 0 1.63913e-06 1
0.3 0.182582 -0.303443 1 0 0
0.0316521 0.3 0.26621 0 1 0
0.0590476 0.223276 0.292998 -1.63913e-06 0 1
0.3 -0.180003 -0.030163 1 0 0
0.0585258 -0.3 0.0692461 0 -1 0
-0.111559 -0.3 -0.27265 0 -1 0
-0.11157 -0.3 0.112665 0 -1 0
0.122829 -0.212034 -0.307002 1.63913e-06 0 -1
0.3 0.232117 -0.264005 1 0 0
-0.258935 -0.3 -0.143652 0 -1 0
0.3 -0.015749 -0.219 1 0 0
-0.0300795 0.3 0.280735 0 1 0
0.122117 0.266866 0.292998 -1.63913e-06 0 1
-0.157267 0.146923 0.292997 0 1.63913e-06 1
0.230442 0.3 -0.0429494 0 1 0
0.0797137 -0.3 0.227083 0 -1 0
0.22805 0.3 -0.0790908 0 1 0
0.3 -0.145839 0.179728 1 0 0
-0.3 0.282284 -0.103338 -1 0 0
-0.242183 -0.00740999 0.292998 0 1.63913e-06 1
-0.3 -0.224434 0.202484 -1 0 0
0.3 0.137517 0.245695 1 0 0
-0.223533 -0.3 0.0364882 0 -1 0
0.3 -0.149829 -0.0103812 1 0 0
-0.117363 -0.000601381 0.292998 0 1.63913e-06 1
-0.3 0.252089 -0.191439 -1 0 0
-0.3 -0.0642636 0.0388682 -1 0 0
0.293276 -0.3 0.111433 0 -1 0
0.102587 0.0503859 -0.307002 1.63913e-06 0 -1
0.256908 -0.3 -0.254776 0 -1 0
0.00451845 -0.3 -0.0527155 0 -1 0
0.3 -0.122588 -0.306235 1 0 0
0.24536 -0.3 -0.0371105 0 -1 0
-0.3 -0.293513 0.0692954 -1 0 0
-0.0670343 0.274829 0.292997 -1.63913e-06 0 1
-0.0349169 0.3 -0.0682289 0 1 0
0.3 -0.216435 -0.160218 1 0 0
-0.158676 -0.3 0.138391 0 -1 0
0.154841 -0.103857 -0.307002 1.63913e-06 0 -1
0.188506 -0.290716 -0.307002 1.63913e-06 0 -1
0.3 0.154802 -0.18343 1 0 0
0.3 0.234349 0.28287 1 0 0
-0.3 0.0544719 -0.235103 -1 0 0
0.12868 -0.3 0.0845082 0 -1 0
-0.3 -0.14166 0.0184724 -1 0 0
-0.3 0.0148073 -0.194196 -1 0 0
0.3 0.0568891 -0.0573546 1 0 0
-0.1894 -0.256086 -0.307003 1.63913e-06 0 -1
-0.0724507 0.3 0.0656335 0 1 0
-0.3 0.197392 -0.0144678 -1 0 0
0.3 0.0224062 0.239588 1 0 0
0.145973 0.3 -0.0197977 0 1 0
-0.0493178 0.3 0.00397551 0 1 0
-0.289176 0.260747 0.292997 0 1.63913e-06 1
0.128731 -0.0171566 -0.307002 1.63913e-06 0 -1
-0.3 -0.100781 -0.199878 -1 0 0
0.0381939 -0.3 0.0134466 0 -1 0
-0.283048 0.3 0.144489 0 1 0
-0.20684 -0.0487676 0.292998 0 1.63913e-06 1
0.3 0.0136267 0.157532 1 0 0
0.3 -0.112876 0.0676909 1 0 0
-0.205609 -0.3 -0.248452 0 -1 0
0.3 0.0443909 -0.0926976 1 0 0
0.3 -0.102295 0.28738 1 0 0
0.247305 -0.3 0.137653 0 -1 0
0.226374 0.3 0.202474 0 1 0
-0.0623344 0.3 -0.226721 0 1 0
-0.287942 -0.3 -0.170595 0 -1 0
0.0610672 0.0627322 0.292998 -1.63913e-06 0 1
0.0103164 0.179219 -0.307002 0 1.63913e-06 -1
-0.3 -0.230933 -0.220498 -1 0 0
-0.216291 -0.130032 0.292998 0 1.63913e-06 1
-0.130798 -0.3 0.0146921 0 -1 0
-0.3 0.0902388 -0.222567 -1 0 0
-0.3 -0.195396 0.181109 -1 0 0
0.279504 0.3 -0.124956 0 1 0
0.295607 -0.3 0.0112226 0 -1 0
0.0544109 -0.252636 -0.307002 1.63913e-06 0 -1
-0.00362289 -0.3 0.280402 0 -1 0
0.176965 0.3 0.240211 0 1 0
-0.115093 0.3 -0.285832 0 1 0
-0.3 -0.0107916 0.0711768 -1 0 0
0.3 -0.174955 0.126246 1 0 0
0.3 -0.0270618 0.290623 1 0 0
0.3 0.0502733 0.112076 1 0 0
0.0579787 0.3 -0.268372 0 1 0
-0.3 0.162569 0.125155 -1 0 0
0.140419 -0.234597 0.292998 0 1.63913e-06 1
0.00234398 -0.00998929 0.292998 0 1.63913e-06 1
0.194706 0.3 -0.118141 0 1 0
-0.234508 -0.3 0.277676 0 -1 0
-0.140608 0.3 -0.146516 0 1 0
-0.3 -0.0447109 0.212833 -1 0 0
0.202212 -0.3 0.143519 0 -1 0
-0.3 0.0878811 0.0886991 -1 0 0
0.115406 -0.0520771 0.292998 -1.63913e-06 0 1
-0.3 0.199974 -0.143735 -1 0 0
0.0597627 -0.3 0.274794 0 -1 0
0.3 -0.0921682 -0.277067 1 0 0
0.264497 0.3 0.19666 0 1 0
0.185117 -0.157913 0.292998 -1.63913e-06 0 1
0.00691324 -0.3 0.238442 0 -1 0
-0.3 -0.0169467 -0.0078207 -1 0 0
-0.160892 0.3 0.241144 0 1 0
-0.118098 -0.3 -0.02733 0 -1 0
-0.268101 0.3 -0.0467458 0 1 0
0.00820953 -0.3 -0.216291 0 -1 0
-0.200671 0.3 -0.233347 0 1 0
-0.3 -0.28636 -0.0134013 -1 0 0
-0.00236809 0.3 -0.164846 0 1 0
-0.26033 0.289167 0.292997 -1.63913e-06 0 1
0.0477084 0.3 0.0845725 0 1 0
-0.3 -0.141988 -0.24503 -1 0 0
-0.0170705 -0.117421 -0.307003 1.63913e-06 0 -1
0.148818 0.107456 -0.307002 1.63913e-06 0 -1
0.3 -0.0144914 -0.132604 1 0 0
0.00831255 0.271945 -0.307002 0 1.63913e-06 -1
0.179708 0.3 -0.244478 0 1 0
0.3 -0.0787545 -0.197008 1 0 0
-0.3 0.161051 -0.00943083 -1 0 0
0.147837 -0.129431 0.292998 -1.63913e-06 0 1
-0.204296 0.0282671 0.292997 0 1.63913e-06 1
-0.3 -0.178738 0.0644733 -1 0 0
-0.3 -0.242021 -0.00247154 -1 0 0
-0.20497 0.013431 -0.307002 0 1.63913e-06 -1
0.3 -0.290257 0.176321 1 0 0
0.224198 -0.3 0.282437 0 -1 0
-0.210971 0.135383 0.292997 0 1.63913e-06 1
0.3 -0.16584 -0.206551 1 0 0
0.3 0.173164 0.00945663 1 0 0
0.3 -0.162421 -0.117615 1 0 0
0.226531 -0.3 0.207038 0 -1 0
0.3 -0.207297 0.26161 1 0 0
-0.00842586 -0.0447548 -0.307003 1.63913e-06 0 -1
0.0609718 -0.3 -0.081797 0 -1 0
0.169255 0.3 0.137235 0 1 0
-0.196817 -0.204414 -0.307003 1.63913e-06 0 -1
-0.226755 0.3 0.0423658 0 1 0
-0.3 0.011502 0.222767 -1 0 0
-0.180801 0.3 0.0533972 0 1 0
-0.11505 0.268227 -0.307002 0 1.63913e-06 -1
0.0404508 -0.3 -0.0546354 0 -1 0
0.292353 0.3 -0.0679925 0 1 0
-0.3 0.0884496 -0.0151056 -1 0 0
-0.3 -0.0644867 0.243969 -1 0 0
-0.3 0.0813891 0.0384627 -1 0 0
-0.294856 0.0661045 -0.307002 0 1.63913e-06 -1
-0.275009 -0.3 -0.0861907 0 -1 0
-0.3 -0.178253 -0.246821 -1 0 0
0.3 -0.273004 -0.203525 1 0 0
0.148396 -0.3 0.0528893 0 -1 0
-0.229835 0.3 0.174962 0 1 0
0.250188 -0.3 -0.183005 0 -1 0
0.158119 -0.3 -0.0472814 0 -1 0
-0.0115826 -0.3 -0.010946 0 -1 0
0.26137 0.275173 0.292998 -1.63913e-06 0 1
0.3 0.141649 -0.110879 1 0 0
-0.3 -0.17687 -0.0593417 -1 0 0
-0.286269 -0.172005 -0.307003 0 1.63913e-06 -1
-0.186293 0.3 -0.281816 0 1 0
0.0773071 0.3 -0.206323 0 1 0
-0.290331 0.3 0.225378 0 1 0
-0.3 0.209001 -0.104868 -1 0 0
0.0165514 -0.3 -0.284455 0 -1 0
-0.3 0.147308 -0.271202 -1 0 0
-0.110322 -0.152687 0.292998 0 1.63913e-06 1
0.145389 -0.3 0.181454 0 -1 0
-0.170585 -0.3 0.0771246 0 -1 0
-0.134973 -0.0628103 0.292998 0 1.63913e-06 1
0.3 -0.06349 -0.260867 1 0 0
-0.3 0.0742582 0.196683 -1 0 0
-0.179702 -0.3 0.018793 0 -1 0
0.172337 0.165792 -0.307002 1.63913e-06 0 -1
0.0605155 0.3 0.291159 0 1 0
-0.266355 0.3 -0.120131 0 1 0
-0.276458 -0.3 0.203772 0 -1 0
0.0881674 -0.108268 -0.307002 1.63913e-06 0 -1
0.3 -0.0463431 -0.0428459 1 0 0
0.3 -0.119828 -0.000136971 1 0 0
0.127762 -0.182991 0.292998 0 1.63913e-06 1
-0.0234513 0.161685 -0.307002 0 1.63913e-06 -1
-0.192493 -0.0712928 -0.307003 0 1.63913e-06 -1
0.3 0.0852793 0.0482439 1 0 0
-0.3 -0.146828 -0.0506706 -1 0 0
-0.3 0.172501 -0.188576 -1 0 0
-0.25407 -0.0562317 -0.307003 0 1.63913e-06 -1
-0.0172189 -0.276637 -0.307003 1.63913e-06 0 -1
-0.203622 0.0761873 -0.307002 0 1.63913e-06 -1
-0.3 -0.277418 0.204874 -1 0 0
0.296259 0.3 0.0746529 0 1 0
0.3 0.268936 -0.111563 1 0 0
-0.221647 0.3 -0.306844 0 1 0
0.197062 -0.3 -0.220219 0 -1 0
0.22439 -0.207147 -0.307002 1.63913e-06 0 -1
-0.3 -0.0968706 0.0626883 -1 0 0
0.0110715 0.0734646 -0.307002 0 1.63913e-06 -1
-0.3 0.0648428 -0.0591769 -1 0 0
0.0797738 -0.3 -0.00167751 0 -1 0
-0.3 -0.263046 0.270659 -1 0 0
0.17712 0.3 0.0445831 0 1 0
0.3 0.220279 -0.295735 1 0 0
0.121391 0.3 -0.135917 0 1 0
-0.3 -0.124114 0.139905 -1 0 0
-0.232219 -0.3 0.120604 0 -1 0
0.167598 -0.268135 -0.307002 1.63913e-06 0 -1
0.174606 -0.105493 0.292998 -1.63913e-06 0 1
-0.3 0.210915 0.121222 -1 0 0
0.0887537 0.3 0.05778 0 1 0
-0.3 0.286711 0.0699364 -1 0 0
-0.122058 0.3 -0.0836833 0 1 0
0.150224 0.279186 0.292998 -1.63913e-06 0 1
-0.168052 -0.3 -0.291533 0 -1 0
0.244087 0.3 0.131138 0 1 0
-0.112122 -0.3 -0.112709 0 -1 0
-0.0224129 -0.0929511 0.292998 0 1.63913e-06 1
0.3 -0.0631925 -0.0702043 1 0 0
-0.0420051 -0.253866 -0.307003 1.63913e-06 0 -1
0.0796345 -0.3 -0.177833 0 -1 0
0.200545 0.210945 0.292998 -1.63913e-06 0 1
0.0140327 0.198756 0.292998 -1.63913e-06 0 1
0.3 -0.119119 0.211294 1 0 0
-0.257031 -0.3 0.250949 0 -1 0
0.121085 0.259442 -0.307002 0 1.63913e-06 -1
0.185317 0.145198 0.292998 -1.63913e-06 0 1
0.3 -0.107903 0.175512 1 0 0
0.3 -0.170756 0.261777 1 0 0
0.141679 0.130606 0.292998 -1.63913e-06 0 1
0.3 0.124388 -0.0520448 1 0 0
0.0304827 -0.3 0.137781 0 -1 0
0.044014 -0.3 -0.129045 0 -1 0
-0.3 0.152319 0.0619734 -1 0 0
0.293765 -0.3 0.14854 0 -1 0
-0.0687293 0.3 -0.145665 0 1 0
-0.3 0.0480097 -0.112956 -1 0 0
0.27688 0.3 -0.229761 0 1 0
0.258286 0.185311 0.292998 -1.63913e-06 0 1
-0.143478 0.3 -0.0421871 0 1 0
0.3 0.206621 0.0551044 1 0 0
0.124221 0.161757 -0.307002 0 1.63913e-06 -1
-0.3 -0.0652137 -0.200357 -1 0 0
-0.267174 0.136891 0.292997 0 1.63913e-06 1
-0.00586289 0.3 0.131655 0 1 0
0.11308 0.3 0.201639 0 1 0
-0.3 0.0319455 0.246055 -1 0 0
-0.285835 0.267394 -0.307002 0 1.63913e-06 -1
0.281758 -0.1379 0.292998 -1.63913e-06 0 1
0.3 -0.0741656 -0.0322469 1 0 0
-0.291868 -0.3 -0.305064 0 -1 0
0.0573724 0.028416 -0.307002 1.63913e-06 0 -1
0.3 0.294464 -0.304563 1 0 0
0.277714 -0.278425 0.292998 0 1.63913e-06 1
-0.0558625 0.0422429 0.292997 0 1.63913e-06 1
0.257765 -0.3 -0.0953033 0 -1 0
0.3 -0.222148 -0.253046 1 0 0
-0.3 -0.275854 -0.236554 -1 0 0
-0.0673921 -0.3 -0.070131 0 -1 0
0.153676 -0.199645 0.292998 0 1.63913e-06 1
-0.3 0.256892 -0.0194604 -1 0 0
0.118312 0.190483 -0.307002 0 1.63913e-06 -1
-0.3 -0.0389372 -0.175061 -1 0 0
0.3 -0.0844661 0.0959796 1 0 0
0.2228 -0.155769 0.292998 -1.63913e-06 0 1
0.265845 -0.0447425 -0.307002 1.63913e-06 0 -1
-0.205688 0.3 0.137689 0 1 0
0.198864 -0.140247 -0.307002 1.63913e-06 0 -1
0.282942 -0.3 0.0435431 0 -1 0
0.0850233 0.3 -0.282102 0 1 0
0.170362 0.0744092 0.292998 -1.63913e-06 0 1
-0.0861192 0.17811 -0.307002 0 1.63913e-06 -1
-0.112211 0.177161 0.292997 -1.63913e-06 0 1
0.0631429 9.71556e-05 0.292998 -1.63913e-06 0 1
-0.0496008 0.233586 0.292997 -1.63913e-06 0 1
-0.0875183 0.3 0.288596 0 1 0
-0.0490169 0.0177628 -0.307002 0 1.63913e-06 -1
-0.3 -0.194609 -0.294831 -1 0 0
0.274062 0.158754 -0.307002 1.63913e-06 0 -1
0.3 0.241971 -0.0420422 1 0 0
